ply
format ascii 1.0
element vertex 1375
property double x
property double y
property double z
property uchar red
property uchar green
property uchar blue
end_header
1.02537 -3.48713 4.22469 51 53 42
-1.17587 -5.50219 4.66413 48 48 39
-1.76 -5.51382 4.87674 22 23 19
-1.44688 -4.55382 4.92652 49 51 38
-2.07076 -5.73205 4.84348 85 87 82
-1.41279 -3.71001 4.89026 49 50 38
-1.56339 -4.61155 5.00367 40 41 33
0.488774 -3.19034 4.30534 35 40 27
-0.823241 -3.75818 4.61258 60 60 45
0.578214 -3.25733 4.30343 60 59 44
-1.31654 -2.8045 4.80602 62 59 45
0.176258 -2.99177 4.29841 61 58 42
0.108651 -1.88631 4.43748 24 27 21
-2.03676 -5.23081 4.95908 14 17 16
-0.138979 -2.79089 4.33217 45 47 43
0.731426 -1.5872 4.42823 54 56 42
-1.04043 -2.58684 4.77664 33 34 26
-1.555 -2.00805 4.97941 50 53 40
0.383099 -2.3482 4.33418 55 57 44
0.229123 -1.99089 4.41738 37 38 31
-1.07565 -4.68206 4.90102 27 28 21
-1.33355 -5.2587 4.79911 53 52 41
-0.829935 -3.42592 4.5816 58 58 45
1.23258 -4.19097 4.09557 49 51 38
-0.64769 -4.65238 4.63885 58 60 39
-2.57253 -5.27122 4.95602 23 25 23
-2.89845 -5.07361 5.04524 26 27 22
0.942341 -5.46796 3.90944 40 42 32
0.148187 -5.17519 4.38313 40 42 33
-1.09738 -6.02235 4.5485 53 53 42
-1.51496 -6.11582 4.70128 37 37 28
-0.308041 -5.50172 4.43429 17 18 16
-2.81749 -4.42862 5.32083 11 13 11
-0.975267 -5.68029 4.58354 39 40 34
-1.42411 -5.77847 4.70545 32 34 29
-0.0111767 -5.4313 4.40496 34 33 25
-0.149943 -5.61105 4.38507 17 18 17
-0.894402 -6.06404 4.51879 53 52 42
-2.64235 -4.51896 5.32174 8 10 9
-3.03479 -6.4302 4.76094 42 43 37
0.608115 -4.67059 4.14528 38 39 33
-0.456694 -5.86254 4.43751 39 40 32
0.20952 -5.80859 4.17356 8 10 10
-2.69632 -6.51387 4.70782 41 41 35
1.03687 -5.24554 3.91333 49 53 43
-2.56829 -5.92992 4.81256 28 29 25
-2.11519 -6.26199 4.70555 38 38 34
-2.32157 -6.44258 4.69163 35 36 29
-0.664834 -4.35153 4.57706 69 70 56
-1.96355 -5.04972 5.07947 24 26 18
1.08901 -5.52791 3.83931 60 64 54
0.844026 -5.62618 3.99772 45 47 35
-1.86534 -6.28236 4.63701 28 29 24
-2.75369 -6.41609 4.73354 41 43 36
0.790905 -5.90134 4.01324 27 29 29
-1.29604 -6.35986 4.58891 40 40 34
1.12467 -3.58871 4.11494 51 53 40
-3.05605 -5.26171 5.01242 49 50 41
0.522023 -5.26534 4.18327 83 82 63
-0.331935 -5.4528 4.47711 23 24 20
-1.88996 -5.72591 4.80682 34 35 30
-1.7367 -6.16605 4.6906 25 26 21
0.555424 -3.3141 4.31884 50 51 38
-2.81243 -3.63551 5.40297 60 57 43
-2.18335 -6.0192 4.77565 28 29 22
-2.84765 -4.71177 5.18049 14 16 13
-1.0521 -5.5533 4.63919 43 43 36
-2.5478 -6.14213 4.76259 21 23 20
-2.18124 -6.19134 4.74955 29 30 24
0.687528 -4.98069 4.04946 48 50 39
-0.207657 -5.00105 4.54919 38 37 27
-0.966164 -5.7472 4.56866 46 45 38
-1.86626 -5.97198 4.7646 28 28 23
-2.23477 -5.95552 4.71661 24 25 20
-2.27767 -5.02596 5.09051 20 21 19
0.353488 -4.75191 4.3549 50 52 37
-0.0661488 -6.01954 4.1783 22 25 20
0.143193 -3.33586 4.33841 61 61 44
0.145529 -3.95514 4.38753 41 44 34
-1.18971 -5.51639 4.67474 50 49 39
-1.44114 -5.85941 4.64175 42 44 35
-1.81199 -5.9385 4.76351 26 27 22
0.360654 -5.74922 4.17311 18 20 14
-0.389769 -6.03992 4.32791 32 34 28
-0.246125 -6.13178 4.21574 36 37 32
-1.30012 -3.65374 4.83005 77 76 60
1.00485 -3.32698 4.23336 79 77 61
-0.924797 -4.05286 4.6977 70 67 49
-2.78823 -5.79567 4.85172 51 52 44
-3.42052 -4.55212 5.33092 42 43 32
0.969584 -4.25622 4.18528 80 81 69
-2.9189 -4.83924 5.13481 30 31 24
-2.04782 -5.87825 4.79122 103 105 100
-1.34116 -4.20876 4.90959 83 81 62
-1.68801 -4.23647 5.07438 84 81 67
-1.31705 -5.62319 4.68584 70 70 58
-1.03636 -4.28195 4.76787 86 85 71
-0.563295 -4.37159 4.51421 72 72 54
0.295982 -5.3134 4.25778 74 74 60
-2.29975 -5.77433 4.84559 29 29 24
-3.76472 -3.97024 5.57369 25 28 19
-0.30685 -4.0807 4.44832 77 76 61
-0.267151 -4.36022 4.48553 80 80 64
0.739966 -4.38394 4.24309 56 59 45
-1.50072 -5.81425 4.69525 63 64 51
-1.97387 -4.63242 5.13345 39 48 32
-1.65352 -4.28341 5.07186 76 73 58
-0.520482 -5.84724 4.43464 53 53 43
-0.264183 -3.99002 4.41095 81 80 63
-0.296949 -4.44997 4.52975 64 63 47
-3.09434 -5.21043 5.0032 44 46 38
1.23354 -5.0761 3.93928 66 67 56
-0.102158 -5.82114 4.30349 42 43 34
-0.590034 -3.93877 4.54473 79 73 54
0.712805 -5.18 4.05325 82 81 64
0.305135 -3.33627 4.34142 80 76 56
-0.0693958 -3.42082 4.31812 60 60 45
-3.13557 -4.04972 5.45712 29 32 20
-1.70952 -4.03487 5.10016 74 71 54
-0.22291 -5.68081 4.36047 42 42 33
-2.71487 -6.12873 4.75125 55 55 48
-1.51142 -5.26647 4.87596 75 74 64
-3.19691 -5.89648 4.85983 48 49 42
1.27352 -3.79738 4.08134 89 90 71
-1.4258 -6.3288 4.61866 43 44 37
-0.931698 -5.82377 4.54629 53 52 44
0.825921 -5.06095 4.01495 62 64 52
1.10443 -4.39636 4.08513 36 38 31
0.356866 -5.36954 4.25555 57 57 45
-0.954823 -4.42353 4.78806 50 53 36
0.765335 -5.34435 4.03364 76 79 60
0.0942921 -4.38899 4.45312 63 63 44
-0.239796 -5.60822 4.38966 27 29 24
-2.1538 -6.33704 4.6901 49 49 41
-2.63437 -6.29437 4.71267 40 39 32
-1.67388 -5.27553 4.91505 44 43 31
-1.69452 -6.10899 4.71485 38 38 29
-0.287266 -5.88804 4.30566 31 32 26
-0.924907 -5.3809 4.65379 43 43 35
-0.82282 -5.8251 4.50629 52 52 42
0.490636 -5.14798 4.17757 57 57 44
-0.854102 -5.39973 4.63944 42 42 34
-0.816257 -4.29871 4.67014 77 75 57
-1.38044 -6.02507 4.62625 63 62 50
1.4756 -4.95132 3.86496 92 92 81
-0.64941 -5.13388 4.64368 37 37 30
-0.48357 -5.17244 4.59919 30 32 24
-1.65926 -5.38774 4.88239 42 42 32
1.08362 -5.48545 3.9261 20 24 19
1.21421 -5.14675 3.87943 41 43 36
0.264342 -5.50498 4.3011 43 44 36
0.874252 -3.26468 4.32998 63 63 46
0.606893 -3.73271 4.37504 77 75 58
1.26926 -5.06744 3.88833 52 53 46
-1.50009 -4.38842 5.05602 65 63 45
0.0128509 -5.62599 4.35756 23 25 22
-1.21551 -5.32859 4.7191 51 51 42
0.493966 -5.89762 4.04547 11 13 10
-1.19895 -3.45399 4.71384 60 63 44
-0.533715 -6.00325 4.42148 52 52 43
1.61812 -5.72882 3.73738 68 68 56
1.48689 -4.82749 3.86444 83 86 72
0.174807 -3.61317 4.36885 15 17 13
-0.614575 -4.09171 4.54794 56 55 42
-0.744421 -6.09932 4.44022 39 39 32
-1.87654 -6.13717 4.70756 27 28 25
1.15364 -3.1552 4.11485 62 63 50
-2.07525 -5.00568 5.12704 25 25 21
-2.39008 -5.39283 4.99953 33 34 28
-1.94841 -5.22112 4.97988 23 26 27
-2.1505 -6.21399 4.7522 30 32 29
0.317669 -5.22343 4.32777 33 35 30
-0.387185 -3.84792 4.45014 85 81 61
-1.94981 -4.89838 5.10149 43 44 33
0.7681 -5.13646 4.03658 72 75 59
-0.379577 -2.97132 4.39806 65 64 49
1.32906 -3.25173 4.10861 46 48 43
-2.36439 -5.13136 5.04783 25 26 22
1.47351 -3.57839 4.04407 74 72 62
1.4195 -4.31561 4.01787 55 56 49
-0.322088 -5.37335 4.49621 32 34 25
-2.8394 -6.30994 4.7709 53 54 47
1.03462 -5.70493 3.88624 63 70 47
-1.68466 -6.4564 4.60047 29 30 24
0.369533 -6.27422 3.9341 37 41 30
0.591501 -6.37693 3.80841 23 26 21
0.48931 -6.47621 3.81895 26 29 22
0.489684 -5.14792 4.16918 75 76 60
-2.51908 -5.68177 4.93088 22 24 21
-1.57521 -5.86841 4.70704 46 46 34
-0.391605 -6.42805 4.19283 33 36 28
0.88318 -6.33637 3.89694 15 20 21
-0.313389 -6.57569 4.11197 37 39 31
-1.18413 -7.00804 4.42265 42 42 33
-2.11325 -7.18393 4.51848 36 36 30
0.605446 -6.79212 3.76965 30 32 26
-0.26724 -4.89258 4.52505 53 49 36
0.0412683 -6.32315 3.96154 26 28 23
-0.159393 -6.70134 4.01966 43 46 35
0.260914 -5.50326 4.29142 48 50 39
0.26945 -6.08201 4.00529 15 17 14
-1.26457 -6.48148 4.57962 37 37 28
0.267497 -6.24701 3.94124 22 25 20
-2.92202 -6.96847 4.65025 40 40 34
0.31953 -6.36931 3.87743 50 51 37
1.28637 -6.67122 3.76029 44 46 38
0.805718 -5.31188 4.00048 54 56 43
0.345976 -5.9194 4.06516 10 12 13
-1.39739 -7.25399 4.38822 25 27 23
-2.00483 -7.3609 4.46703 36 37 31
-1.80604 -6.67461 4.55988 31 31 27
-0.370433 -6.30932 4.23405 24 25 22
-1.50854 -6.89292 4.51057 31 32 26
0.579639 -6.23856 3.82975 10 13 12
-3.54075 -4.98132 5.10805 29 30 23
-2.51283 -6.62277 4.64624 32 33 28
-3.24194 -5.49952 4.95228 39 39 32
-1.50544 -6.6244 4.55065 31 32 26
0.942441 -6.42796 3.839 26 29 29
0.0982969 -5.64201 4.3033 14 16 14
0.882293 -4.48023 4.11903 34 36 32
-0.72524 -4.69119 4.75086 75 76 58
0.374247 -6.02929 3.99948 21 24 19
-1.06659 -6.37483 4.51477 49 50 39
-0.396318 -6.359 4.17911 27 30 25
-1.38355 -4.44601 5.00958 43 45 32
0.799411 -6.02689 3.97478 18 21 19
-0.373037 -6.25662 4.23116 24 26 22
-2.37066 -4.58607 5.22466 36 39 25
1.02579 -4.65491 4.05856 59 59 48
1.01116 -5.47616 3.86314 63 66 60
0.0134352 -6.03811 4.08639 35 39 31
-0.245877 -6.26927 4.18604 29 31 26
-3.14309 -6.89212 4.69683 45 45 36
-0.659724 -6.71907 4.30778 42 43 34
1.48449 -6.36679 3.70274 71 70 58
-2.26985 -7.22134 4.50389 34 35 28
-0.521562 -7.02394 4.20018 35 38 28
-2.91559 -5.80442 4.82814 45 45 38
-1.1064 -6.21054 4.56228 54 54 44
0.86972 -5.8044 3.98465 74 71 57
-0.216622 -6.36674 4.10437 33 36 29
0.825197 -6.28925 3.9114 22 26 26
0.0426152 -6.70101 3.93999 35 37 28
-1.86977 -5.02801 5.04706 19 21 16
1.11538 -5.40724 3.85205 43 46 37
-1.46909 -6.2812 4.64572 38 38 30
0.423874 -6.29697 3.87905 35 37 30
-1.83873 -6.85036 4.53962 34 34 29
-1.69337 -7.0536 4.48301 37 38 32
-0.499446 -6.95699 4.23342 41 43 34
0.817127 -6.6598 3.80773 65 65 57
0.00355847 -4.85172 4.49577 74 71 59
1.02701 -6.36146 3.88163 32 35 29
-0.0143278 -6.15829 4.09017 47 49 40
0.862878 -4.59013 4.10288 66 66 56
-0.389735 -4.76678 4.63388 75 74 57
-0.187644 -5.46702 4.44322 33 34 27
-3.11683 -6.15808 4.79052 67 67 56
-0.58008 -6.14751 4.33463 62 61 46
1.39304 -5.91964 3.80031 99 95 81
-1.6054 -4.96691 4.9594 69 67 55
0.523599 -5.57615 4.15942 65 63 51
0.559743 -6.45265 3.8269 42 43 35
-2.20627 -7.06584 4.54537 41 42 36
-3.01005 -6.67164 4.6474 51 51 43
0.431683 -5.32041 4.23857 90 88 75
0.0427962 -5.82048 4.24945 45 47 39
-0.648071 -6.59951 4.3235 69 69 55
-0.231664 -6.76276 4.06445 67 67 52
0.372858 -4.69738 4.34576 53 55 45
0.593584 -5.33637 4.15999 86 84 69
-2.4946 -6.08959 4.83259 29 29 24
-2.06706 -6.10498 4.74404 90 92 85
0.971258 -6.57658 3.78299 64 65 56
0.824905 -4.1652 4.27796 74 73 57
0.464547 -5.70868 4.25382 38 43 30
-1.89121 -7.21989 4.48366 47 47 41
-0.952857 -6.23669 4.49426 73 71 59
-2.38251 -6.71661 4.60946 59 59 52
-1.4839 -6.49338 4.58756 43 43 35
-0.513855 -5.49901 4.49025 52 52 41
0.451169 -5.36322 4.24572 86 84 71
-2.72968 -5.72609 4.83332 50 50 44
-1.30729 -6.23641 4.59344 72 71 61
-2.07599 -5.37148 4.93995 71 71 60
0.386173 -6.19695 3.90282 40 43 33
0.854189 -5.95607 3.98298 61 62 53
0.846137 -6.0918 3.96648 39 41 34
-1.6961 -5.90329 4.7611 34 33 25
-0.309885 -6.17738 4.21346 38 39 33
0.562286 -6.55706 3.78807 31 34 27
-1.29245 -7.04496 4.41757 38 40 36
-2.339 -6.60142 4.66304 39 40 35
-2.00226 -6.64223 4.60293 44 46 40
-2.69487 -6.22969 4.73648 53 52 44
-2.87725 -6.36126 4.72991 56 57 50
-1.7055 -6.79378 4.5371 40 42 36
-0.242928 -6.20285 4.19746 55 57 48
-0.556176 -6.52123 4.28246 50 51 39
0.905134 -5.9979 3.94346 72 71 58
-0.391058 -6.14212 4.25963 21 24 22
-0.971812 -5.35272 4.64681 52 51 41
1.13316 -5.46797 3.85068 51 56 44
-1.73748 -5.85047 4.78191 37 36 28
0.0537335 -6.06428 4.0498 15 18 16
-1.9526 -4.18622 5.12031 73 70 55
0.243441 -6.6131 3.91449 31 33 25
0.99909 -6.7217 3.79593 58 59 52
-0.706383 -4.48966 4.67367 54 57 39
0.217376 -6.13938 4.03512 12 14 12
-1.73788 -6.46488 4.59047 28 29 23
-0.801841 -4.21359 4.60538 73 70 55
0.094367 -6.68331 3.91739 44 46 38
-1.03028 -6.4522 4.48838 40 41 34
-0.160117 -6.19591 4.106 24 26 22
1.02683 -6.09213 3.92157 71 69 58
1.30281 -3.85985 4.02017 50 53 46
1.09582 -5.94969 3.91934 66 66 52
-1.62898 -6.29397 4.62455 31 32 24
-0.510984 -4.05539 4.51676 82 78 63
1.28936 -3.92073 4.02348 63 65 50
-0.495813 -6.54902 4.24022 54 56 45
1.27802 -5.51867 3.79859 83 81 68
-2.4527 -5.52074 4.94604 19 21 20
1.27309 -4.7802 3.95159 79 80 69
-0.83338 -3.98473 4.6143 74 72 58
0.868239 -6.05089 3.96089 53 53 41
0.263235 -6.73106 3.86978 42 46 36
1.12657 -7.29663 3.55466 34 37 30
-0.20548 -7.82481 4.00114 36 39 29
-0.27046 -7.99599 3.99462 34 34 27
-1.33899 -8.28348 4.26835 33 34 27
-2.27701 -7.52821 4.46737 40 39 33
0.82728 -7.51397 3.67268 30 34 31
0.99369 -7.32857 3.64171 36 41 37
-0.356782 -5.72114 4.36418 49 50 42
0.164218 -7.40269 3.80474 36 38 31
0.571045 -6.23935 3.83918 19 23 18
1.5214 -6.64753 3.61996 26 30 20
0.548114 -5.48927 4.1586 51 52 41
-2.23433 -6.32903 4.69916 41 41 34
-1.84831 -6.65907 4.57198 36 37 31
0.177054 -7.09378 3.87512 13 15 15
-1.20718 -7.6227 4.29848 41 42 36
1.06162 -7.39187 3.60003 30 31 27
0.533628 -7.68438 3.71406 48 51 41
1.4495 -6.63604 3.70953 28 32 26
1.37084 -6.92512 3.56411 20 25 19
0.4236 -7.13736 3.80152 21 25 24
1.04584 -7.18276 3.69975 50 54 44
-3.05871 -6.11912 4.79355 57 57 47
1.60743 -6.47537 3.69182 29 31 25
0.456068 -6.10597 3.90669 18 21 19
-1.57612 -7.22706 4.42966 39 40 34
-2.08738 -7.87373 4.39985 43 44 36
0.415007 -7.55707 3.74656 36 41 31
1.18652 -7.45306 3.47926 30 32 25
-0.0633731 -6.23438 4.07856 29 31 25
-1.48626 -6.30199 4.6748 37 37 28
1.35967 -7.33287 3.36518 14 17 15
-2.63264 -5.95272 4.82286 30 31 26
-2.65423 -6.53651 4.74389 40 40 35
0.956633 -6.37137 3.88927 21 25 23
0.67543 -6.04094 3.98716 8 12 12
1.32362 -6.5835 3.79516 38 40 32
-0.0502742 -5.94816 4.22637 20 24 22
0.56784 -6.81607 3.8021 35 38 30
-2.9772 -6.05379 4.81106 49 49 41
-3.03879 -6.45294 4.79244 54 54 46
0.0238264 -6.98365 3.94495 13 16 12
-2.39527 -5.85161 4.88352 20 22 20
0.730801 -6.71529 3.78407 25 29 28
-0.349032 -7.17229 4.06147 25 28 23
-1.41091 -7.44134 4.35578 22 23 20
1.0429 -7.61116 3.48678 38 40 31
-2.00376 -6.03317 4.72406 73 75 67
-1.18848 -6.80136 4.36941 43 41 33
0.229408 -6.96855 3.88622 29 31 25
0.51029 -7.24006 3.77978 45 47 44
1.28881 -5.36998 3.82608 64 65 53
0.234776 -5.68604 4.25338 14 16 14
0.062883 -6.06885 4.04191 30 33 28
1.26946 -6.81354 3.73446 32 34 28
1.20831 -7.07286 3.6335 29 31 26
0.72341 -7.45561 3.72318 29 33 30
1.4524 -7.36704 3.33574 17 20 17
0.684074 -7.60212 3.66516 32 35 31
-0.0691258 -7.82084 3.91946 36 38 30
-0.135913 -7.11969 3.87312 29 33 27
-0.138314 -6.83031 4.03941 53 55 41
-0.571906 -7.09875 4.23121 69 68 57
0.649677 -7.27291 3.76695 104 107 99
-0.410676 -5.45132 4.49902 53 53 42
-1.46776 -5.97905 4.6802 66 63 46
1.20712 -6.8472 3.74148 68 69 60
0.106856 -5.48741 4.36133 44 47 33
1.17333 -5.65222 3.86932 73 75 54
-0.727229 -6.45329 4.35753 80 76 64
1.08851 -6.92608 3.74752 77 78 74
0.776714 -7.47051 3.71101 45 47 42
-0.451605 -6.88881 4.1739 55 57 43
0.343241 -7.02487 3.79609 41 45 37
0.396854 -6.78492 3.86805 53 56 44
1.32312 -6.46363 3.78963 94 93 83
0.694524 -6.54533 3.80816 57 57 48
-0.0867913 -6.69329 3.94681 65 68 45
1.26045 -7.36298 3.38134 53 60 41
0.537536 -6.99671 3.81948 78 79 70
-0.185991 -7.59261 3.98247 72 72 57
0.824791 -6.49211 3.76837 65 66 52
0.581658 -7.36736 3.77756 88 89 82
-0.0504841 -7.4707 3.88778 63 65 50
0.852295 -6.79788 3.79089 83 85 77
-1.30163 -7.27581 4.38346 51 53 47
1.00859 -5.61256 3.86491 113 113 102
0.140829 -6.44775 3.90531 52 55 42
1.03912 -7.47365 3.5353 44 47 36
1.35545 -5.14116 3.85035 79 79 71
0.0570906 -6.80215 3.894 68 72 57
0.346092 -7.61763 3.80009 54 56 45
-0.0596299 -7.88939 3.90735 45 46 36
-0.206002 -7.97379 4.04229 45 47 35
0.716653 -6.90867 3.79196 88 89 80
-0.444184 -6.05933 4.33361 50 52 40
0.500034 -6.8482 3.80311 77 78 64
0.594579 -6.85903 3.7718 57 60 47
-0.567745 -7.35212 4.17485 41 43 33
-2.3319 -7.90572 4.43477 44 44 35
0.683757 -7.00197 3.78896 67 69 57
-2.51089 -7.55167 4.4828 40 40 31
-2.05745 -8.19757 4.35112 38 38 31
-1.04904 -8.00494 4.21551 47 47 40
1.53128 -6.97971 3.53318 51 55 43
0.311454 -7.89756 3.79155 53 53 40
-0.379639 -7.29702 4.06187 64 66 52
0.773136 -7.39251 3.73686 72 73 67
-2.6594 -7.14084 4.59124 50 50 42
0.765988 -7.02143 3.78302 99 100 91
1.33978 -7.11135 3.55046 29 31 26
1.0936 -7.51194 3.47024 28 31 25
0.914737 -6.99885 3.75724 98 99 91
0.619189 -6.47554 3.80668 28 31 28
-1.47047 -6.60014 4.56223 35 36 29
-1.17935 -7.78418 4.23362 42 43 36
-0.0916606 -7.67456 3.93119 35 38 29
-0.761653 -6.99809 4.28495 47 46 35
-0.0196819 -6.28761 3.97395 25 28 23
0.595067 -7.13195 3.78924 64 67 59
0.437993 -7.62811 3.72184 55 57 45
-1.86338 -4.91794 5.09637 60 57 41
-1.87713 -7.52451 4.41732 32 33 28
1.42464 -7.10629 3.5367 14 16 13
0.0746886 -6.49139 3.92098 33 35 28
1.18664 -6.91384 3.71082 30 34 29
0.581337 -4.43064 4.33144 44 45 37
0.0637162 -6.43497 3.92586 26 29 23
-1.64684 -6.96337 4.49965 36 37 31
-1.69534 -6.26862 4.68098 29 30 24
0.290181 -6.25799 3.90976 21 23 18
-1.81423 -7.11626 4.49069 35 37 31
-0.206048 -7.25956 3.95114 33 36 30
1.36447 -4.92063 3.88895 89 89 78
0.463599 -7.19052 3.7905 47 49 44
-0.646839 -7.37506 4.23038 48 49 39
-0.701365 -6.52548 4.33496 70 67 56
-0.347682 -7.35776 4.04699 54 55 44
-0.351743 -4.96642 4.56926 47 46 34
-2.03569 -6.57221 4.61482 37 38 33
-1.957 -6.84177 4.5618 41 42 37
-0.946293 -5.19513 4.68331 44 43 33
1.06229 -7.84172 3.3806 36 38 29
0.367728 -8.16618 3.69514 30 32 27
-0.236562 -8.61409 3.86446 40 42 32
0.817762 -8.40784 3.35983 36 39 31
0.202065 -8.60564 3.65566 30 33 26
-0.219754 -8.85884 3.81128 34 37 28
-0.00177396 -8.29031 3.8238 32 33 27
0.106469 -7.60842 3.86594 38 41 32
1.00368 -7.54196 3.52122 45 48 38
0.0880921 -7.74468 3.86498 50 50 37
0.219008 -8.09809 3.80135 48 49 37
1.12853 -6.97717 3.71664 36 40 33
-0.0236124 -7.9576 3.87086 22 25 19
-0.211358 -8.73098 3.86029 26 28 23
0.164012 -6.95846 3.91164 32 35 28
0.302705 -7.06713 3.7996 22 25 22
1.21212 -7.82506 3.31903 62 61 48
1.33975 -7.90209 3.18077 39 42 33
-0.155318 -8.33062 3.84161 24 26 20
-0.0510916 -8.42227 3.80421 32 34 27
-0.39104 -8.80548 3.92294 35 36 27
0.490053 -7.55395 3.71252 40 44 36
1.08483 -8.14861 3.29642 36 39 29
-2.14341 -9.13872 4.26225 41 40 31
0.364971 -8.58334 3.50587 50 53 44
0.701814 -8.26634 3.43426 18 19 16
-0.925048 -6.44423 4.40765 59 57 43
1.29464 -7.75461 3.2496 42 47 37
0.299108 -8.54892 3.6147 39 41 31
0.132526 -8.60346 3.68884 25 28 22
0.0680927 -8.62518 3.72512 28 30 24
0.758975 -7.97238 3.5307 28 30 25
0.871217 -8.10507 3.40334 25 29 22
-2.27343 -7.42384 4.57527 40 40 32
1.26744 -7.94066 3.21574 44 47 37
-0.473317 -7.16144 4.1357 46 50 37
-0.740144 -8.25234 4.07843 39 38 28
1.03729 -7.78217 3.44073 38 43 33
0.757595 -7.73609 3.60951 25 28 23
1.09443 -7.96416 3.33817 32 35 25
0.599666 -8.0936 3.55501 15 18 16
1.19589 -7.54618 3.42129 32 35 28
0.519013 -8.31801 3.51685 32 35 28
0.977835 -8.29606 3.27403 28 31 24
0.596367 -8.51698 3.39213 31 34 27
-0.343059 -8.89582 3.91713 31 32 24
-0.136886 -8.00956 3.89398 23 27 24
0.469652 -8.49029 3.43763 28 33 23
0.421887 -6.29012 3.87245 40 42 35
-2.01538 -7.07847 4.47651 50 51 43
0.209727 -6.85657 3.90006 40 43 34
1.06303 -7.76386 3.41158 37 43 34
0.0784113 -6.49234 3.93317 33 36 27
0.0266377 -6.92206 3.97211 23 26 18
1.07989 -8.15466 3.25316 24 27 22
0.659526 -7.47134 3.71753 24 29 28
-1.15287 -6.79527 4.48689 42 40 30
0.452371 -7.51459 3.76798 27 30 26
1.16965 -6.55245 3.83279 66 67 55
-0.411804 -8.51612 3.97352 50 51 39
-0.614315 -6.50182 4.22072 78 75 58
0.288521 -8.09911 3.78629 57 58 43
1.39485 -7.44706 3.32291 43 47 37
1.28557 -7.48392 3.41386 57 60 46
0.439285 -8.5219 3.5712 44 48 38
0.146783 -7.54544 3.8593 68 67 55
-2.24226 -6.66154 4.58749 61 61 53
-1.29613 -6.92709 4.38313 66 67 61
-2.17441 -7.06641 4.45219 52 52 42
0.338007 -7.73458 3.79281 57 57 44
0.192393 -8.03643 3.82212 62 62 49
0.66586 -8.02507 3.52009 45 47 40
-0.144728 -7.77769 3.91001 57 58 43
-2.50784 -6.51555 4.69004 40 39 34
1.09694 -6.52431 3.85298 72 73 62
1.31154 -7.63583 3.24418 50 54 42
0.27351 -7.84155 3.79998 53 52 40
-0.132499 -8.13383 3.84145 51 53 44
-1.10041 -8.36026 4.15665 60 61 53
1.12413 -6.03581 3.87852 108 106 93
-0.237721 -8.66689 3.86838 40 42 31
-0.341457 -8.62278 3.85171 63 65 50
0.086041 -7.76303 3.84565 54 53 40
0.439684 -8.42642 3.47558 34 37 28
-1.1287 -7.94892 4.23303 47 47 38
1.44536 -7.60497 3.2094 27 30 25
-1.05511 -8.72593 4.09387 44 44 36
0.554635 -7.5002 3.74488 28 32 29
-0.188917 -7.00581 4.03546 32 34 27
-0.998422 -8.92438 4.07863 41 41 33
0.60116 -7.77353 3.66121 29 31 26
0.123644 -8.42591 3.76851 21 23 18
0.437749 -8.27922 3.58339 22 25 20
-1.16838 -8.4707 4.16819 39 40 32
0.850951 -7.79928 3.5571 54 57 46
0.640748 -7.89822 3.56167 46 48 39
0.76316 -6.71966 3.80108 41 43 40
0.268238 -6.1221 3.98769 15 17 14
-0.0344963 -7.99533 3.87127 17 20 16
0.390284 -6.84125 3.84995 47 50 41
-0.449049 -8.46254 4.00947 35 37 26
1.38653 -8.20396 3.00872 35 37 30
-0.0167022 -8.5492 3.76411 18 20 17
-0.73905 -8.48162 4.08143 39 39 30
0.974074 -7.38981 3.64043 30 34 29
-1.11413 -6.78325 4.44452 39 38 29
0.471786 -6.89795 3.82207 75 79 65
0.509898 -7.13628 3.8041 72 75 64
1.08046 -7.3244 3.58204 41 44 35
-0.0726285 -8.17916 3.89766 44 44 35
1.22654 -7.88075 3.28632 52 54 41
0.903151 -7.79167 3.54604 43 44 36
0.613643 -8.22271 3.43519 16 18 14
-0.473608 -5.38213 4.52557 40 40 31
0.839214 -5.63534 3.97997 54 56 44
0.134436 -6.31648 3.93146 25 28 23
0.319195 -6.73027 3.8329 33 35 29
1.00277 -7.8191 3.43746 30 32 25
1.54338 -6.50656 3.64305 33 36 27
-0.0242294 -7.07286 3.91036 14 17 13
0.665843 -8.45191 3.36529 17 19 15
0.107613 -7.1017 3.86578 12 15 13
1.00898 -7.39232 3.62157 42 45 38
1.31431 -5.85095 3.84481 106 103 87
0.342988 -6.42121 3.96512 66 65 50
-0.329582 -6.03846 4.29905 46 48 40
-0.661274 -8.34027 4.07762 45 43 33
0.0834945 -8.54054 3.69734 38 42 31
-0.938575 -6.28886 4.49413 82 79 63
-1.14086 -6.04342 4.56568 57 55 44
-0.486215 -6.24048 4.1762 51 54 42
1.03171 -5.17233 3.9494 68 70 61
0.597786 -7.04573 3.78633 88 90 79
0.403347 -9.23163 3.44157 51 54 40
-0.433742 -9.51963 3.89111 29 31 23
1.04696 -7.39445 3.58154 47 50 40
0.640244 -7.72949 3.66866 43 46 38
0.338106 -8.67462 3.53297 51 53 40
0.853081 -8.67493 3.26041 48 52 42
-0.726959 -9.45198 3.9515 46 46 37
0.884082 -9.06922 3.1363 44 45 34
1.14614 -8.8842 3.03707 42 46 32
1.12077 -8.73156 3.09396 34 37 27
-0.73883 -8.46365 4.12885 48 47 34
0.714992 -8.87521 3.27568 29 31 24
-0.642861 -9.27469 3.96659 41 40 31
0.0490525 -9.09898 3.59877 22 25 18
-0.18572 -8.30277 3.824 32 34 27
1.15198 -7.79771 3.33387 69 71 54
0.916642 -7.98536 3.44072 37 40 29
-0.407136 -8.66114 3.94788 52 53 38
0.331095 -8.9336 3.47708 40 43 33
0.962953 -8.88579 3.14686 36 36 29
0.282922 -9.09521 3.50813 53 55 41
-0.372342 -9.49477 3.85735 27 30 22
0.00690542 -9.49987 3.58809 34 36 25
0.185065 -7.92795 3.8169 31 33 26
0.29908 -8.32471 3.69579 41 45 32
0.0487705 -8.91475 3.64618 30 33 23
1.37221 -8.67766 2.97468 43 45 35
0.556655 -8.90699 3.33822 30 33 26
0.0491857 -9.10848 3.57184 26 29 21
0.341344 -8.06477 3.72331 41 42 33
-3.05111 -8.65808 4.4293 132 134 118
-0.177774 -8.2452 3.87204 35 37 30
0.921051 -8.21075 3.35245 41 46 31
1.37005 -8.52164 2.9873 45 46 37
0.794463 -8.67196 3.28344 52 54 40
-0.0786569 -8.92319 3.72983 26 29 21
-0.175971 -8.94935 3.77227 40 43 32
1.02709 -9.15385 3.08511 50 50 39
0.238866 -9.44963 3.52633 41 43 32
-0.329502 -9.82353 3.82593 47 47 33
0.131851 -8.43495 3.77702 29 33 25
-1.56652 -10.0407 4.09277 112 114 102
0.763842 -8.51615 3.30614 32 36 26
1.10874 -7.18136 3.62604 55 58 46
1.42494 -7.39749 3.30775 32 36 30
0.963147 -7.46867 3.58624 43 47 39
-0.0314602 -8.65706 3.7947 40 43 35
1.38344 -8.94865 2.95289 29 33 23
1.20169 -9.14176 2.97539 44 46 37
0.269841 -7.72538 3.80141 47 50 37
0.171546 -8.20194 3.77079 48 49 37
1.33745 -8.3494 3.03155 46 49 39
0.762986 -8.49018 3.34945 34 37 26
0.0281305 -8.84419 3.697 36 38 28
-0.414334 -9.11884 3.89851 31 33 27
0.791209 -9.02302 3.18675 46 48 37
1.28208 -9.16221 2.97802 25 27 22
0.327691 -8.5403 3.54621 35 40 31
-0.176567 -9.31046 3.74307 33 33 26
-1.91682 -9.96507 4.13478 55 56 48
0.182148 -8.43248 3.72512 23 28 20
-0.06259 -9.34393 3.65825 46 46 38
-2.06187 -10.1606 4.08799 52 52 44
0.244364 -7.65468 3.84674 56 57 45
1.15725 -7.64364 3.44489 73 72 59
0.0165205 -8.60128 3.74302 37 39 32
1.2164 -8.06031 3.13171 83 84 70
0.064402 -9.5498 3.57232 58 57 45
0.767569 -9.13842 3.20346 71 72 58
-1.04973 -8.94497 4.03312 48 47 39
0.496226 -7.42101 3.81183 63 64 55
0.857126 -7.79489 3.58085 65 66 54
1.28483 -9.00506 2.98072 51 51 38
1.32776 -9.24313 2.96284 53 55 40
0.173119 -9.08493 3.51342 51 52 38
0.789933 -7.68813 3.61109 49 52 43
0.957286 -7.56324 3.55365 68 70 56
1.33278 -7.78253 3.18697 68 71 54
-0.230355 -8.96565 3.8106 61 63 52
1.42786 -8.91317 2.95094 46 50 35
-3.02161 -8.23264 4.5361 62 59 44
0.788621 -8.72438 3.28034 66 65 52
0.935849 -8.14372 3.36441 58 62 46
0.532891 -8.52818 3.40986 54 57 45
0.0897125 -8.96083 3.63432 39 41 31
1.04608 -9.24431 3.07746 63 63 48
0.317956 -7.40372 3.78537 88 85 70
-0.0364121 -7.73874 3.9046 52 54 40
-0.893633 -8.2275 4.11203 56 55 43
0.00350851 -9.22808 3.60294 55 58 41
0.425648 -8.62543 3.47695 62 62 45
1.04881 -8.06568 3.31999 58 66 45
1.05717 -8.83796 3.07054 52 59 37
-2.44685 -9.74194 4.24494 52 52 41
-3.0073 -8.70838 4.44807 132 134 118
-0.100075 -9.38305 3.67947 40 41 34
0.938386 -9.21047 3.10246 42 43 31
0.223104 -9.3524 3.56065 53 53 40
0.404612 -9.41129 3.4556 94 91 75
0.594768 -8.66405 3.35594 56 57 43
0.29741 -9.04702 3.49797 67 70 60
-2.53681 -9.22695 4.30644 151 154 144
0.369055 -9.14286 3.43999 85 81 60
-2.89754 -8.49443 4.42374 65 61 44
1.39821 -9.07035 2.94644 62 61 46
-0.286026 -8.5507 3.88541 31 33 25
-0.763282 -8.73641 4.05816 44 44 33
0.185511 -9.19397 3.53689 40 43 31
1.25023 -9.01494 2.99494 36 38 30
-1.43448 -7.50218 4.30136 35 38 32
-0.477263 -8.71046 3.95011 55 55 44
0.838852 -8.84252 3.19879 23 27 21
0.902621 -8.52855 3.26437 21 23 18
1.2609 -8.17978 3.11715 26 29 24
0.368821 -8.73017 3.49456 34 35 26
0.69462 -8.72619 3.32395 28 29 24
0.301822 -8.93235 3.49706 33 36 26
0.423924 -8.83419 3.42443 34 37 27
1.1137 -8.33613 3.22256 26 29 23
-0.930041 -6.58936 4.47044 66 63 51
0.871236 -8.71192 3.23123 56 57 48
-1.17565 -6.8509 4.40109 42 40 30
-1.00037 -8.52177 4.11238 44 44 35
-0.785865 -8.38854 4.08156 40 40 30
0.585077 -7.06727 3.80308 92 94 84
1.11581 -8.35275 3.27288 36 39 29
-1.63459 -9.85881 4.06726 61 62 52
-0.0500444 -9.61533 3.68266 48 50 36
-1.56716 -10.2788 4.0303 55 56 47
-1.41753 -10.4612 3.99066 54 54 46
0.78524 -9.3002 3.18499 33 36 28
-0.224074 -10.2715 3.75261 40 41 29
-1.90262 -9.95464 4.10246 61 61 51
0.0811375 -10.1899 3.63968 35 39 26
0.879208 -9.65146 3.12769 39 42 28
-1.54149 -10.2607 4.01002 61 63 53
0.0661704 -10.5408 3.65938 34 33 25
0.433767 -8.26973 3.56661 46 49 38
1.07913 -9.37394 3.02349 56 63 39
-0.112108 -9.67701 3.66004 36 39 29
1.41073 -10.1163 2.80656 28 32 25
1.14878 -8.73489 3.10654 37 40 28
0.0247698 -9.67966 3.63328 41 41 32
1.44766 -9.6763 2.85318 43 46 33
0.220648 -10.2418 3.59453 43 44 32
1.42049 -8.50935 2.95914 44 46 36
1.34414 -8.87217 2.96813 52 55 41
1.19575 -9.27488 2.96341 53 58 41
0.0490144 -9.88501 3.65256 44 43 31
1.00982 -8.79409 3.121 29 33 22
0.17745 -9.83362 3.63999 50 49 36
0.899808 -9.72088 3.11806 34 35 27
0.50252 -9.96573 3.39804 51 53 41
1.09489 -9.80766 3.01634 43 46 31
1.22033 -9.87597 2.89001 41 45 33
0.151928 -10.3148 3.64314 49 50 38
-2.168 -11.0625 4.04389 61 61 50
-2.33837 -11.094 4.06479 49 48 37
0.886183 -8.52589 3.24795 38 39 31
0.98582 -8.29478 3.27886 41 44 35
0.794271 -10.2303 3.14081 47 50 37
0.663636 -9.59724 3.29807 55 58 43
-3.27126 -8.48256 4.52077 118 120 105
0.906779 -8.79713 3.16773 42 46 35
0.962053 -9.57905 3.13756 46 47 34
0.906508 -9.8456 3.09872 38 39 27
-0.196172 -10.2016 3.72856 30 31 23
1.16963 -9.8855 2.9619 43 47 34
1.41981 -8.06174 3.09466 31 35 25
-0.473358 -8.71428 4.29706 65 62 48
1.26787 -9.25789 2.96095 77 75 56
0.793063 -10.043 3.12482 60 63 50
0.882723 -9.89746 3.09218 53 54 38
1.31681 -8.93203 2.95265 75 78 60
1.37977 -9.32502 2.93025 50 51 38
0.685689 -9.63732 3.25539 63 65 50
0.92299 -9.49327 3.12991 68 67 47
0.721764 -9.54403 3.24149 63 63 47
1.11223 -8.93781 3.0309 62 67 46
1.51513 -9.44427 2.85807 39 41 30
1.5354 -9.7576 2.78907 64 66 45
-2.49099 -11.1148 4.10407 58 57 46
1.22454 -9.34444 3.06919 73 75 51
0.868676 -8.51222 3.35057 67 68 52
0.0992326 -9.84297 3.65244 54 52 37
1.28292 -9.72764 2.90269 59 62 45
0.361804 -10.2317 3.50895 52 54 41
-2.13856 -10.0832 4.15992 51 51 40
-1.0725 -10.8087 3.8738 69 69 61
-0.17669 -10.2374 3.72768 28 30 22
0.735401 -9.6023 3.23611 63 63 42
-2.60556 -10.8011 4.16906 53 52 40
-0.291072 -10.5068 3.72069 51 48 37
-2.32718 -10.8375 4.10725 55 55 42
-0.836768 -10.6653 3.82491 57 57 46
0.211356 -9.71417 3.57423 62 60 43
-0.336407 -10.8124 3.71322 51 49 37
-3.20006 -8.96266 4.45023 56 53 41
-0.15902 -9.4298 3.67588 45 47 36
-2.36412 -10.6412 4.09837 51 51 40
-0.282848 -10.3628 3.69562 63 62 41
0.365486 -9.14238 3.44353 93 88 64
0.262597 -9.29202 3.55607 65 63 46
-2.20706 -11.0091 4.06219 69 69 57
-1.50171 -11.094 3.92194 50 51 42
-3.07814 -9.15453 4.4065 69 69 57
0.298945 -9.48581 3.51846 70 67 51
-2.32556 -10.104 4.14323 57 57 45
-0.0205407 -9.93043 3.62999 31 33 24
-0.541492 -9.86691 3.88411 47 46 34
-0.894536 -10.3991 3.82716 43 43 34
-0.0486437 -9.95269 3.64182 29 31 23
-0.0753246 -10.1267 3.6775 43 46 34
1.39681 -9.90907 2.83671 20 22 19
1.34171 -9.72778 2.89538 31 32 25
-0.96294 -10.5299 3.86788 57 57 46
-0.773691 -10.1962 3.8752 48 48 39
1.01174 -10.2105 3.04703 34 37 25
1.1442 -9.10912 3.02544 58 58 44
-0.152805 -8.58816 3.85392 61 62 47
0.979063 -10.0599 3.06105 44 46 36
-0.773492 -8.40543 4.09485 49 49 36
0.236268 -8.4283 3.67979 34 37 29
0.755707 -9.95154 3.14522 28 31 24
1.4891 -9.93499 2.79888 25 27 21
1.32899 -9.30606 2.93726 23 25 19
1.19376 -10.182 2.88868 56 59 40
1.29684 -10.2935 2.8197 54 58 42
0.724254 -10.9716 3.36746 59 60 43
1.37059 -10.3219 2.79896 41 44 31
-0.104064 -9.12756 3.65713 45 47 38
1.25926 -9.56583 2.93694 52 54 42
-1.79473 -10.0358 4.06106 59 59 50
1.2776 -10.9892 2.93855 32 35 24
1.3856 -9.90338 2.8165 53 56 44
-1.97962 -10.0993 4.11596 55 54 44
1.53439 -10.3857 2.75846 29 31 23
0.674373 -10.6308 3.32395 54 56 42
-1.18386 -10.6898 3.87463 56 55 43
1.40374 -10.549 2.77052 35 37 27
-1.07358 -9.87256 3.99391 47 46 36
-0.564943 -11.2114 3.7235 58 57 45
-0.553006 -9.9826 3.8548 56 53 38
0.829131 -11.0216 3.30038 56 58 46
-0.0170117 -10.3116 3.65428 65 59 41
-0.891812 -10.611 3.84192 51 51 39
-2.56646 -11.5954 4.05308 47 46 35
0.985969 -10.5524 3.04784 55 55 38
1.46009 -10.8955 2.84256 47 51 34
0.572278 -10.9692 3.43344 41 45 30
0.334453 -9.00531 3.45705 57 58 46
1.06781 -9.6982 3.05799 57 59 39
-0.13199 -9.88663 3.66988 48 50 35
0.164119 -9.99774 3.62331 49 51 38
1.26658 -9.16701 2.95218 51 54 40
-2.35921 -11.898 3.99081 48 47 37
-0.618499 -9.39981 4.00562 53 50 37
-1.36419 -10.2033 4.0094 121 122 107
1.1105 -9.95893 3.04884 53 55 38
-2.23208 -11.6028 4.01055 52 50 38
1.35295 -10.2211 2.79823 56 55 41
1.1763 -10.6767 2.94238 49 51 33
-1.41146 -11.2969 3.89696 54 55 46
-2.01294 -10.9323 3.98598 61 60 48
0.854428 -9.74142 3.1574 42 46 35
0.425598 -9.9814 3.44857 40 42 31
0.0899637 -10.1917 3.59329 41 43 30
1.25743 -10.5234 2.88428 62 64 47
-2.58482 -11.522 4.07441 61 60 49
1.43461 -9.32391 2.88706 62 61 47
0.947914 -9.52282 3.13917 73 70 50
1.2277 -9.63607 2.93161 80 81 62
1.37257 -10.0225 2.85463 66 69 49
1.21669 -10.0418 2.87467 73 74 55
0.76903 -11.0139 3.33004 74 72 53
0.0743999 -9.58484 3.63128 68 64 49
-0.00638194 -8.99902 3.65508 53 56 41
-0.720876 -11.1601 3.76454 139 141 128
-0.598961 -11.3367 3.7273 137 139 127
1.3363 -10.6325 2.84186 89 90 69
1.38234 -9.64227 2.88077 64 64 49
0.169274 -10.549 3.61426 67 64 44
0.987155 -9.30225 3.0839 81 81 55
0.65394 -10.7723 3.32672 76 75 55
1.169 -9.71284 2.9 84 83 63
1.63752 -10.7227 2.75119 65 63 45
0.237247 -9.12434 3.51829 75 76 54
1.57628 -10.3396 2.74116 52 55 41
1.08094 -10.4726 2.98594 65 65 50
1.39198 -10.2963 2.74048 65 67 53
0.847457 -10.6059 3.17274 87 83 59
0.505808 -10.1766 3.37237 68 67 46
-0.107629 -10.7613 3.54225 74 70 44
-0.106692 -8.86025 3.74961 56 58 42
0.450566 -10.5611 3.38953 58 60 43
0.619134 -11.0174 3.42458 57 57 45
1.593 -9.82481 2.79593 55 57 41
1.45375 -10.3757 2.75342 79 85 47
1.3688 -10.4504 2.80117 77 76 55
1.6055 -10.1624 2.71985 62 64 44
0.806887 -10.4931 3.14064 93 92 78
1.27312 -9.54231 2.89381 63 63 48
0.547843 -9.7928 3.37285 83 81 61
-2.22469 -10.596 4.10898 57 57 45
-1.52708 -10.4455 3.98245 57 56 45
0.520882 -10.855 3.46656 41 44 30
-2.53971 -11.9496 4.00715 51 48 36
1.27721 -11.0602 2.92076 43 45 32
-1.72516 -11.8571 3.89046 50 50 40
0.377133 -10.3602 3.4582 71 72 60
0.824325 -11.2337 3.34221 55 55 38
-2.37836 -11.4294 4.06191 54 53 41
1.56899 -10.6431 2.77493 84 87 67
0.295906 -10.8644 3.58879 74 71 54
0.658595 -11.0014 3.42114 77 73 57
0.155452 -10.2373 3.63394 66 65 48
-0.786927 -9.13916 3.97467 59 56 43
0.193267 -9.30057 3.54474 55 54 40
1.12476 -10.8817 2.98668 32 34 23
-0.384882 -9.04023 3.89521 32 34 25
0.207243 -9.65135 3.56293 60 60 42
-0.110727 -10.0792 3.68849 57 58 42
0.71869 -9.72432 3.23573 41 43 32
-0.453594 -10.778 3.74274 51 52 42
1.26535 -9.62516 2.92839 56 57 44
0.805928 -9.60171 3.21958 68 66 49
1.0185 -10.1399 3.03974 49 50 37
-1.18173 -7.97309 4.22572 49 50 40
-0.163652 -8.60369 3.81081 62 62 47
1.06074 -11.8482 3.22632 61 61 48
1.75732 -11.7747 2.8448 50 51 36
1.44652 -11.8273 2.92672 55 58 40
1.16414 -11.9564 3.17959 63 64 47
0.967126 -12.0283 3.30913 56 56 41
-2.43688 -11.5009 4.0684 55 54 40
0.571012 -12.0383 3.46649 54 52 39
0.531249 -11.2291 3.49259 65 62 42
1.05391 -11.5131 3.20941 58 61 40
1.40081 -11.7608 2.93113 70 70 49
-2.38047 -12.5996 3.97612 90 82 62
-1.79173 -10.9925 3.99509 65 64 52
-1.18881 -11.0595 3.84845 52 50 38
1.63364 -10.9799 2.784 54 55 37
-2.10137 -12.0201 3.95609 57 55 43
1.45684 -11.4044 2.86231 52 55 37
-0.192843 -11.8188 3.61158 97 98 84
0.940355 -11.7314 3.32346 62 62 44
0.890935 -11.8803 3.30437 47 49 37
-1.75676 -12.6653 3.82821 118 117 97
1.49024 -10.0029 2.77127 55 58 44
0.261363 -10.7605 3.58026 57 56 41
-0.54616 -10.8814 3.83935 58 54 41
0.84102 -10.7957 3.21577 59 61 44
1.6919 -11.1256 2.76504 45 46 34
1.51892 -11.1737 2.83725 63 61 48
0.664102 -11.541 3.44478 66 66 51
-0.106871 -11.5774 3.63279 54 54 40
0.764744 -11.7205 3.40571 62 60 42
-0.750404 -11.9882 3.69879 60 59 48
-1.66676 -12.1702 3.86521 47 47 37
0.983427 -11.8504 3.28594 47 49 36
-0.390566 -12.1133 3.62335 62 61 49
-1.91081 -11.8281 3.91789 58 56 44
0.956854 -10.4467 3.03967 46 49 36
0.900554 -11.2639 3.32313 77 77 56
-1.25687 -11.924 3.7937 56 56 45
1.06081 -10.8187 2.98927 50 54 37
1.33566 -11.295 2.92534 52 57 35
-0.893688 -10.6484 3.80719 54 54 42
1.25487 -10.984 2.93456 46 47 33
1.52224 -11.6031 2.88425 50 50 35
-2.00575 -12.3678 3.90027 53 51 38
0.261819 -10.5816 3.57687 40 42 29
-1.13613 -10.3292 3.92455 74 72 60
-2.68156 -11.5536 4.09229 54 51 37
1.01719 -11.1357 3.13096 48 52 36
0.723424 -11.5076 3.41315 49 49 39
-0.893019 -12.1067 3.71832 51 51 39
0.623111 -10.1134 3.20187 61 62 43
-1.52031 -12.1401 3.86162 49 48 37
0.755498 -10.4201 3.16236 58 61 43
-1.68687 -12.3516 3.84079 52 51 40
1.31165 -10.473 2.84057 68 68 48
0.564472 -10.5763 3.39827 64 63 46
1.01796 -10.7655 3.03845 58 60 42
0.982677 -10.9124 3.11022 62 63 45
-1.76448 -11.3763 3.93334 58 55 43
1.25659 -12.0733 3.11331 78 79 55
0.677676 -11.6891 3.45355 60 58 43
-2.01588 -10.2131 4.08264 53 52 40
0.616705 -10.4756 3.32479 71 73 54
-1.23316 -11.2356 3.84955 55 54 41
1.12811 -11.2396 3.05314 57 57 42
0.715139 -11.3726 3.39779 58 59 40
1.25116 -11.582 3.01275 45 45 32
-2.44342 -12.7951 3.96514 61 60 47
1.07854 -10.7618 2.96618 63 65 51
1.08506 -11.5753 3.19664 87 84 66
0.913815 -10.7341 3.1556 93 91 70
1.82119 -11.6696 2.77403 96 101 78
0.827295 -10.742 3.22144 79 76 64
1.75631 -11.7208 2.83148 88 90 71
-2.02313 -11.1548 4.10091 70 69 57
1.14452 -9.84121 2.95778 85 85 63
1.33178 -10.5713 2.83912 88 91 75
0.611669 -10.8882 3.4676 67 66 51
0.564902 -11.1602 3.45442 79 76 55
-1.64651 -11.8334 3.88222 63 62 51
-0.0893425 -10.1837 3.66306 65 63 47
0.0240441 -10.2758 3.66223 77 71 48
1.25655 -11.0716 3.00749 74 75 60
-0.976377 -11.3883 3.80367 66 67 55
0.721755 -10.5126 3.20544 85 83 64
1.22997 -11.2794 2.98522 77 74 51
-0.0931939 -12.0913 3.58114 141 142 127
1.47415 -10.4683 2.74944 82 82 62
-0.499742 -10.5129 3.75675 69 67 54
-2.23602 -11.1267 4.05121 66 65 52
1.07098 -10.9782 3.06932 76 76 52
0.991996 -11.269 3.15932 86 86 63
0.830305 -11.1334 3.27622 93 86 67
1.08497 -10.5005 3.03226 72 71 51
0.808148 -10.0459 3.13379 71 72 54
-0.67998 -12.4395 3.66273 64 63 51
-0.960361 -11.9094 3.74572 49 48 37
1.73681 -11.6022 2.815 69 68 47
1.86756 -11.7122 2.76921 87 89 74
-2.16365 -12.7784 3.9008 68 68 52
-0.296925 -11.1743 3.68322 55 53 38
-1.15705 -12.3473 3.7461 54 52 41
-0.776643 -11.5919 3.71878 59 58 45
-0.450829 -12.1897 3.64023 77 77 66
-1.79308 -11.6533 3.92749 63 62 50
-1.45574 -12.4395 3.77817 58 57 47
-2.50563 -11.422 4.08606 64 62 48
-1.78488 -10.9347 3.99729 65 64 52
1.50548 -11.8229 2.90371 66 63 47
-2.48109 -12.3153 4.00431 58 57 44
-1.07892 -11.6023 3.78725 57 56 43
-0.924459 -12.2932 3.70741 57 57 46
-0.875201 -12.067 3.72187 51 49 38
-0.970551 -11.2249 3.80005 52 51 38
-0.601077 -12.0575 3.65951 60 59 47
-0.651094 -10.8913 3.76012 55 53 40
0.648332 -12.2478 3.45131 48 49 39
-0.614952 -9.52289 3.93677 57 53 40
1.43158 -11.0744 2.89632 70 71 53
1.47005 -11.302 2.84706 37 39 27
1.74601 -11.3801 2.77011 39 40 28
0.813687 -10.3772 3.13942 61 62 45
-0.677191 -10.3925 3.7792 71 70 57
1.43901 -9.14473 2.9065 30 33 23
-0.345961 -12.2756 3.62664 53 53 45
-1.25839 -11.8815 3.85341 45 46 36
1.17588 -10.7813 2.94599 61 61 40
0.687694 -9.64539 3.25056 77 74 56
1.63987 -11.2915 2.75941 36 37 26
0.207217 -11.4632 3.595 62 59 42
0.553172 -13.0282 3.42753 69 65 51
1.48139 -11.9889 2.9065 73 73 51
-1.37155 -11.0846 3.83133 54 52 39
0.59671 -11.8812 3.46207 52 51 38
1.38004 -10.8899 2.92131 35 38 25
1.26415 -12.5813 3.23251 47 48 35
0.289259 -12.7512 3.47563 64 63 50
-1.59198 -11.8965 3.85456 61 58 46
1.96958 -12.0259 2.84885 72 69 52
1.86529 -12.6052 2.98239 80 80 59
-0.0608597 -13.1393 3.52579 79 78 66
-0.585454 -12.8509 3.615 64 64 52
0.434615 -10.5927 3.4595 55 55 43
0.818548 -11.0257 3.26238 70 72 51
1.18523 -12.2292 3.21068 96 91 72
1.75607 -11.3732 2.77353 46 49 30
0.806874 -11.9544 3.39366 67 67 49
1.088 -12.0422 3.23636 67 69 48
1.08214 -12.3264 3.27369 67 67 49
0.420373 -13.1868 3.45235 81 77 61
1.28392 -11.8009 3.05945 69 68 48
1.78368 -11.5985 2.72542 77 91 48
-0.029422 -11.6508 3.60284 66 63 50
0.806107 -11.8305 3.38088 72 71 48
0.721256 -12.4403 3.4018 62 59 45
-1.5517 -13.0955 3.75942 51 47 37
-2.45542 -13.2521 3.92487 45 43 32
-2.05581 -13.3309 3.85219 39 37 27
1.81044 -12.7867 3.05664 60 60 45
1.94338 -12.9136 3.03193 74 72 54
-2.04972 -12.8036 3.87009 56 55 41
1.63011 -12.0051 2.88201 84 79 56
1.60017 -12.4619 3.05387 92 91 70
-1.28338 -11.5221 3.89932 57 55 42
1.45838 -11.302 2.82414 49 55 33
1.01906 -12.182 3.28552 57 56 41
0.904249 -12.1946 3.3029 75 75 52
1.55191 -12.3461 3.01939 78 77 56
1.57508 -12.9655 3.22003 64 61 47
0.294148 -13.182 3.47754 85 83 69
0.674724 -12.3897 3.42738 57 54 40
-0.0861967 -11.9221 3.59094 80 78 65
-1.96984 -11.6695 3.91612 60 58 45
-0.247424 -11.6953 3.63671 78 76 64
-1.04146 -13.1388 3.63778 39 39 30
1.28923 -11.5528 2.99163 46 49 35
-1.86287 -13.1894 3.80484 39 38 27
1.56766 -12.247 2.9615 88 89 68
0.691249 -12.9972 3.40852 124 123 109
1.14553 -10.969 3.0416 87 86 65
0.573053 -12.92 3.43404 126 126 113
1.46415 -12.0834 2.95447 102 104 87
-0.556006 -12.7738 3.62092 60 60 49
1.32748 -12.8918 3.26345 87 86 74
-2.03803 -11.3545 4.00207 72 71 59
1.42894 -11.3482 2.81833 63 67 41
-0.711622 -11.9358 3.71934 69 68 56
1.86754 -11.94 2.83397 112 113 91
-1.0895 -13.3281 3.66997 47 46 37
1.6889 -12.6783 3.06947 103 103 86
1.88433 -12.0295 2.87491 108 102 81
-1.71572 -12.7837 3.81565 114 113 97
-2.27658 -10.9427 4.06245 65 63 51
-1.85453 -11.6281 3.90156 69 68 56
1.31443 -11.355 2.93986 64 66 43
1.42506 -12.2841 3.05738 100 98 79
-0.145843 -12.8672 3.54055 60 57 41
-1.38509 -13.3569 3.72215 68 65 52
-1.76081 -13.2088 3.77862 57 52 38
1.44366 -11.0352 2.85933 79 80 61
1.38136 -11.8137 2.9709 99 97 75
-1.99784 -13.6921 3.82032 47 44 32
1.22227 -12.0084 3.12451 98 96 76
0.804972 -12.1125 3.37793 87 83 64
0.756436 -12.2737 3.39303 80 78 63
0.565478 -12.3116 3.43955 71 66 52
-2.06694 -12.7056 3.88438 161 156 134
1.68064 -11.9803 2.85992 88 82 59
1.88756 -12.1061 2.90622 83 78 59
-1.47054 -13.1349 3.74829 57 55 43
0.773732 -11.0129 3.35703 90 86 65
-0.958605 -12.9319 3.67785 50 49 37
-1.70839 -13.2851 3.78169 36 35 26
-2.25257 -12.6003 3.93293 98 87 63
1.46042 -12.7978 3.22352 79 75 56
2.00737 -12.7668 2.98236 84 82 67
-1.2385 -12.6963 3.73179 85 86 71
0.607382 -12.8572 3.42447 123 122 107
1.12604 -13.1125 3.3083 98 86 63
-0.783957 -12.9651 3.65759 71 71 59
0.340449 -11.8632 3.53037 64 60 44
1.46045 -12.2221 3.02572 77 76 55
0.088071 -12.6294 3.51658 61 59 47
0.296049 -12.8828 3.46416 56 52 37
0.657533 -12.6544 3.43398 66 62 48
-2.06882 -13.0784 3.84131 48 45 32
1.34564 -12.8248 3.27758 97 94 79
-1.17131 -12.4258 3.73382 63 62 52
-1.82375 -11.7937 3.90694 65 63 50
-0.331895 -12.7332 3.59178 48 47 36
-1.13702 -13.4033 3.66779 43 42 32
1.62033 -12.158 2.93233 51 51 39
1.70098 -12.7747 3.1037 72 70 54
1.05515 -12.3527 3.32501 61 60 44
-0.183498 -12.6176 3.5717 51 50 37
0.210537 -10.8775 3.56648 66 62 43
1.82555 -11.263 2.74018 49 49 37
-1.16268 -12.7123 3.71336 96 96 80
-1.12388 -12.8674 3.68836 83 84 75
1.12952 -10.8875 2.99049 40 42 27
-0.20209 -12.3513 3.60598 64 63 51
0.289603 -10.8585 3.58592 74 73 51
-0.470079 -13.0421 3.59267 79 79 70
0.84512 -10.1924 3.0923 52 54 42
-1.32852 -12.4485 3.76612 49 48 39
-0.297275 -10.6682 3.74203 62 57 41
1.60081 -11.7378 2.88529 38 40 27
1.81058 -11.0716 2.74006 41 42 28
1.66289 -10.2475 2.75182 55 55 36
1.04771 -9.90442 3.01509 61 61 42
-0.0111401 -14.2564 3.55596 18 19 15
-1.50438 -12.6766 3.76441 108 105 88
1.68677 -13.7081 3.22719 41 48 26
1.81407 -13.8222 3.12142 38 40 27
1.98958 -13.7469 3.07964 42 45 28
-1.7295 -13.8603 3.76507 35 33 24
-2.09787 -14.2261 3.81542 43 41 30
-1.53669 -13.4813 3.74585 51 49 36
-2.04395 -13.5629 3.83219 29 29 22
-0.375113 -13.8436 3.56746 45 43 32
0.703889 -13.2747 3.39883 61 54 41
0.71461 -13.567 3.40593 57 50 38
1.74751 -13.3776 3.1638 58 56 38
0.794595 -12.9637 3.39453 72 68 54
0.871342 -13.2587 3.37481 73 66 49
1.45422 -13.8081 3.29407 31 38 20
0.456236 -12.9827 3.45841 61 57 43
-1.79885 -12.2005 3.83879 60 57 44
-1.25559 -11.8556 3.77545 58 56 42
1.46042 -13.0655 3.235 67 61 47
-1.59698 -13.5646 3.75092 52 49 35
0.763367 -13.849 3.45185 51 55 30
0.290148 -13.9136 3.51147 40 41 34
1.03628 -13.9769 3.44352 35 39 23
-1.26269 -13.8014 3.69529 50 49 39
-1.07895 -13.4421 3.63448 45 45 33
-2.21191 -13.5719 3.86541 45 42 30
1.3103 -13.732 3.32927 54 61 29
0.0364417 -14.1151 3.53835 22 23 20
-1.09272 -13.635 3.67269 49 49 38
-2.01988 -13.8016 3.82402 36 36 25
0.97616 -11.8634 3.27598 56 55 42
-1.44208 -13.7245 3.72646 51 48 36
1.94985 -13.3493 3.09055 58 55 37
0.650489 -13.9502 3.4819 20 25 16
0.376421 -13.6705 3.47663 42 43 31
-2.42643 -14.5051 3.86726 59 56 39
1.29813 -12.4074 3.19672 86 81 57
-2.14744 -13.9757 3.83702 32 31 24
1.14298 -11.7613 3.16003 61 61 45
-1.38713 -11.6898 3.84356 59 58 44
0.10438 -12.7683 3.50915 64 62 49
-1.809 -14.1069 3.78885 39 38 28
0.706705 -14.0555 3.4581 20 25 16
-0.056459 -14.1658 3.55072 29 29 22
-1.76783 -13.9087 3.77382 47 43 30
2.0568 -13.8005 3.05688 62 60 43
1.10348 -14.0461 3.43607 24 27 18
-2.12259 -14.5724 3.84568 45 42 30
-1.24858 -13.5233 3.66927 64 61 48
1.40451 -13.641 3.25595 39 42 26
-0.269677 -11.9534 3.63403 74 72 59
1.85153 -13.5525 3.12241 42 47 28
0.204498 -14.0269 3.52331 21 23 19
-1.632 -14.3261 3.7527 49 46 34
-1.17146 -14.4467 3.70798 47 46 34
-1.95024 -12.747 3.87499 111 108 90
0.233306 -13.9581 3.50745 44 44 36
-2.00635 -14.062 3.80433 67 60 42
-2.20658 -13.4629 3.83205 63 59 37
1.87582 -13.2816 3.11546 131 108 75
1.68301 -13.7644 3.1607 55 60 38
-1.81223 -13.3893 3.76923 65 62 39
-2.15215 -13.7973 3.85458 68 62 43
-0.698077 -13.4544 3.64193 54 54 43
0.693138 -13.0839 3.50863 120 116 101
-2.26574 -12.8848 3.91938 73 72 56
-1.23976 -14.3008 3.69227 66 62 44
1.97773 -13.2739 3.09107 120 101 72
-2.17433 -14.1433 3.84763 62 58 42
2.16007 -13.0362 2.95612 103 99 80
1.50563 -13.8856 3.28321 41 49 24
-1.65097 -14.4056 3.76127 51 48 35
1.20731 -13.8644 3.38686 56 60 32
-2.33845 -13.9543 3.89911 67 60 41
-1.61135 -13.9901 3.73322 56 51 36
1.48123 -13.6618 3.26414 58 62 33
0.755025 -13.7859 3.4434 44 49 27
0.897671 -14.0414 3.46032 40 45 27
1.4982 -12.1714 3.02853 97 95 76
0.13094 -13.4499 3.5106 55 52 39
-1.3413 -13.8862 3.76334 60 57 45
0.780431 -13.9253 3.47588 49 52 34
1.77483 -12.096 2.8954 90 82 61
-0.601765 -13.4312 3.54805 58 57 46
-0.0333257 -13.5464 3.5106 53 50 39
-1.44551 -12.8715 3.76902 54 51 42
-2.42706 -12.8056 3.96216 65 63 49
1.85555 -13.1156 3.12777 83 73 58
0.442926 -13.3293 3.45237 65 59 45
-0.263618 -14.0069 3.54962 51 48 38
-0.372854 -12.9312 3.57639 99 99 83
-1.076 -12.7295 3.70612 101 102 87
-0.957448 -14.1178 3.65229 47 47 36
-0.397706 -12.6781 3.59726 60 58 46
0.979154 -13.4966 3.35331 56 51 39
1.58254 -13.9284 3.22556 40 44 29
2.14887 -13.2526 3.03996 117 105 82
1.05775 -13.4376 3.30574 57 53 39
0.295939 -13.3535 3.44222 61 56 42
-0.865341 -14.3093 3.65606 50 50 38
0.353275 -13.3285 3.4237 65 60 47
1.73759 -12.4567 2.96667 83 82 62
1.30257 -12.401 3.1854 73 71 51
0.597193 -13.3624 3.41584 63 56 42
-0.169436 -11.8288 3.61398 81 81 67
0.0559925 -11.4034 3.62692 61 58 42
1.17108 -13.5996 3.31295 43 43 27
-0.917961 -12.7724 3.6849 84 84 71
1.22371 -12.6459 3.21856 79 77 58
2.03588 -13.0596 3.04544 92 88 67
1.30503 -12.8274 3.28238 92 88 74
1.66207 -12.5156 3.0125 106 107 90
-0.797714 -13.5839 3.6091 41 40 31
-0.151729 -13.7527 3.53054 50 50 38
0.875377 -10.8364 3.20782 79 79 62
-0.113521 -10.7656 3.548 76 70 44
0.843329 -11.371 3.32183 76 74 56
-0.62641 -13.089 3.61019 45 43 33
1.38369 -11.6702 2.93273 69 67 48
0.0141907 -12.4169 3.5637 69 68 56
1.46984 -13.766 3.27971 27 31 17
-2.1438 -13.3978 3.87711 55 50 34
-2.50663 -13.4376 3.91354 44 42 29
0.544605 -13.3643 3.46346 77 69 52
1.92434 -14.1868 3.08082 43 45 28
-0.543253 -14.5117 3.48712 10 13 12
1.64666 -14.3726 3.15291 32 34 24
0.990525 -14.47 3.27061 20 26 18
0.0536056 -14.6363 3.5354 15 18 10
-1.22815 -14.7978 3.66423 22 28 19
-0.921237 -15.1488 3.46794 32 39 22
1.37235 -14.9425 3.04614 20 24 18
-0.58745 -12.8492 3.62833 97 97 81
0.171955 -14.6974 3.50496 19 23 14
2.03265 -14.5452 3.01556 34 34 26
1.26755 -12.5772 3.21929 63 64 48
-0.332507 -12.7179 3.60087 57 55 41
-0.754805 -13.6162 3.63184 54 51 39
1.55432 -13.5059 3.22684 58 62 32
1.01543 -14.1579 3.39521 19 22 16
-0.953727 -14.6925 3.5705 15 19 13
-1.07091 -14.7311 3.64313 29 35 26
1.83038 -14.5913 3.07584 55 53 39
1.57245 -14.6393 3.14038 31 32 23
-0.0200426 -14.9177 3.52539 22 28 16
-0.461136 -13.8351 3.55662 58 54 41
1.50701 -14.8101 3.11704 27 29 24
0.760553 -14.3423 3.38273 22 27 17
0.299711 -14.4437 3.53598 18 23 15
-1.95034 -15.1721 3.76891 31 38 29
-0.209564 -14.2664 3.54914 12 14 11
-0.783197 -14.6537 3.4522 22 29 19
0.342588 -14.0114 3.54568 34 36 26
1.40479 -14.0092 3.28792 24 28 16
1.83573 -14.0766 3.10764 43 43 30
1.03288 -14.3551 3.26969 28 33 24
0.0336244 -14.4992 3.46348 15 18 13
1.16411 -14.7859 3.22444 30 38 23
1.61606 -14.8408 3.10589 40 41 30
0.794059 -14.991 3.28025 32 39 26
1.12808 -15.0549 3.17178 8 10 8
-0.810779 -13.5896 3.61995 49 48 36
1.72573 -14.0711 3.11267 36 39 29
0.508075 -14.6751 3.43278 10 13 10
-0.390476 -14.7026 3.38914 6 8 6
0.798486 -14.1946 3.41133 9 12 7
-1.27621 -14.7494 3.63188 16 21 13
-0.279855 -14.3656 3.50698 12 15 12
-1.23717 -14.5733 3.69342 10 12 11
-2.1118 -14.7743 3.81558 19 24 15
0.504586 -14.3221 3.49409 17 21 13
0.213176 -14.909 3.37413 18 24 15
-1.22504 -15.1868 3.67477 14 20 13
1.37011 -14.294 3.19446 11 15 11
-0.777835 -12.9723 3.66222 63 62 49
0.932794 -13.037 3.37173 68 64 49
1.15914 -14.0976 3.41668 11 14 10
0.277378 -13.4082 3.48157 63 57 42
1.20396 -14.6322 3.16683 30 34 24
-0.37602 -14.8001 3.3272 11 15 8
-1.02511 -15.0159 3.61836 13 17 12
-1.46221 -14.5329 3.71667 12 14 11
-0.926843 -13.2913 3.65941 47 46 34
1.12921 -14.3886 3.23319 25 30 20
0.162292 -14.5695 3.5245 31 33 24
-1.58632 -15.4519 3.78705 9 12 9
0.526665 -14.4798 3.42001 40 48 27
0.261231 -14.9486 3.41197 25 31 19
-1.7743 -15.2976 3.80488 31 41 27
-2.55692 -15.4671 3.99812 26 33 20
-1.447 -15.4064 3.75377 9 12 10
1.55041 -13.9989 3.21223 27 29 18
